ply
format ascii 1.0
comment PCL generated
element vertex 1543
property float x
property float y
property float z
element camera 0
property float view_px
property float view_py
property float view_pz
property float x_axisx
property float x_axisy
property float x_axisz
property float y_axisx
property float y_axisy
property float y_axisz
property float z_axisx
property float z_axisy
property float z_axisz
property float focal
property float scalex
property float scaley
property float centerx
property float centery
property int viewportx
property int viewporty
property float k1
property float k2
end_header
-8.9743977 15.656263 14.559687
-2.4070618 11.150984 10.794815
-8.7312222 11.865635 9.8579102
-4.118454 11.688397 10.884046
-1.1771256 10.713137 10.376238
-1.731738 12.000543 10.980028
-2.0647261 12.263862 10.604556
-3.656873 13.272526 10.819124
-2.682009 13.246312 10.969617
-2.3184714 12.424228 10.238846
-4.3052187 5.0111232 7.4508982
-6.445694 5.2432442 7.9539943
-6.5631576 5.2836742 7.9269896
-6.2364316 5.3195972 7.7902021
-7.5046444 5.0727715 10.899512
-4.4912467 5.4922266 7.7538862
-4.2380962 5.6126084 7.7975235
-6.5862322 5.6104074 7.9514222
-4.734756 5.7411013 8.289856
-6.7012358 5.6757622 8.0154657
-6.6164393 5.7353296 7.9177561
-7.4528275 5.7786369 10.012685
-7.10817 5.9307494 9.1177149
-6.8901691 5.8987207 8.1867962
-4.7289157 5.9431109 8.047204
-6.9697242 5.9864879 8.8898058
-7.3782043 6.0391583 9.5482244
-7.4937496 6.120441 9.9731293
-7.2313662 6.2585311 9.3054705
-7.1180658 6.2314963 8.4275675
-6.8349967 6.3248639 8.1862755
-7.1011596 6.4234467 8.7362652
-7.2712083 6.5062108 8.5681725
-7.1737142 6.681385 9.4553747
-7.1472106 6.5824366 8.7488966
-7.4563932 6.7611651 9.4489841
-7.8466058 7.5477514 12.023663
-5.1855626 6.7605386 8.4626036
-7.4581542 7.0150366 9.2748442
-7.505847 7.2361207 9.7599039
-7.3985572 7.3577476 9.4476776
-7.8298383 8.4153299 12.304806
-1.8261912 7.1468086 8.9259596
-5.3628435 7.4782033 9.0574245
-1.2576154 7.2960539 9.1401014
-1.4999816 7.1734538 8.5840597
-1.4862009 7.6020107 9.6335926
-8.1039791 7.9117255 9.1158562
-7.1554871 7.6448917 8.5165453
-1.5636415 7.450541 8.9670801
-5.1118102 7.8664765 9.1425705
-1.3356019 7.5255904 9.0570889
-1.4581777 7.5452986 9.0124979
-5.0217352 7.9016728 9.0620918
-6.418241 6.9982347 6.5547905
-7.6381397 8.6519766 10.080503
-4.8095303 7.9196496 8.9823446
-4.9853487 7.9667778 8.9594641
-8.846734 8.9769535 10.016041
-2.0195198 7.7904911 8.9071016
-1.0115448 7.8044057 9.0985117
-0.97659576 7.797399 9.0896282
-1.7130909 7.9472041 8.9562645
-8.1271315 8.9347973 9.3243599
-4.7255359 8.3337717 9.0055637
-2.2652757 8.0658178 9.0466413
-2.1707866 8.1266565 9.1139755
-1.439407 8.0715122 9.1705656
-1.3861443 8.2891159 9.5314178
-2.4535916 8.1440687 8.934823
-2.3664432 8.0723743 8.8645849
-1.3335085 8.2535601 9.3747597
-5.3407321 9.0395288 9.8574572
-4.6222248 8.7850533 9.448432
-2.2660513 8.2419424 8.9825029
-1.7450565 8.2350454 9.097724
-1.3757609 8.2569294 9.2252483
-6.6816249 8.1660805 7.6610146
-3.5757999 8.9002209 9.8298264
-7.3972936 10.303224 11.343296
-4.6422505 8.8663864 9.4393139
-3.0477941 8.545826 9.2366781
-8.8639688 10.013956 10.380385
-2.1541753 8.5143385 9.3115311
-2.0269184 8.7095251 9.7011471
-2.1669688 8.5044613 9.227622
-1.9506651 8.3284178 8.9752769
-7.1714945 10.460879 11.341542
-3.7092803 9.0170889 9.701396
-7.5299497 9.8787994 9.8015909
-2.9466889 8.9265356 9.2526741
-2.6544068 8.7556667 9.0654554
-8.3352766 10.239524 9.8046455
-7.5969181 11.678329 12.089657
-2.6611254 9.1114769 9.4472828
-2.7900426 9.2194252 9.5145359
-3.3590572 9.3876181 9.4923716
-2.5623889 9.1226053 9.286088
-2.4527133 9.3046799 9.5960789
-1.889257 9.292407 9.6668243
-2.7632396 9.9850521 10.104915
-8.3440361 12.800483 12.29669
-6.3843713 12.493087 12.387925
-8.6537457 11.316859 10.079965
-8.5866261 11.514014 10.284954
-4.3882914 10.957492 10.627952
-8.8290749 11.315524 9.7672577
-8.9007301 15.401896 14.929478
-1.9788322 10.952192 11.027593
-2.3184657 11.002852 10.929839
-9.0068293 11.939112 10.012734
-2.3920734 11.852487 11.712807
-8.5277672 11.570452 9.5215549
-1.7906699 11.594303 11.302747
-8.3942823 12.135243 10.03825
-8.5343428 12.293429 9.9999027
-2.0247042 11.861634 11.219891
-8.1118355 12.624482 10.270641
-2.8411322 12.189139 11.22617
-2.6546979 13.139411 12.249076
-2.3081295 12.271992 11.177943
-1.6132759 10.543367 9.5810385
-1.549067 11.434012 10.409873
-3.0129142 13.022194 10.493685
-4.1119061 14.015961 10.845303
-4.4404011 5.0586777 7.3543367
-4.4741135 5.087574 7.4683232
-4.3448033 5.1863708 7.1188655
-4.3664222 5.1713352 7.2125635
-4.2997217 5.3263421 7.1170173
-3.8181715 5.364646 7.2442393
-4.1342878 5.3889766 7.5788355
-7.2919903 4.9936576 9.6964216
-4.3278275 5.449379 7.1531558
-4.6823955 5.3822713 7.8954706
-4.2418666 5.5047321 7.0357895
-7.0725174 5.2913952 8.4297304
-6.5193396 5.344635 8.0480452
-4.4117084 5.5114694 7.5957928
-4.1674471 5.5369492 7.4642987
-6.5098147 5.4054308 7.9227076
-4.1466398 5.5764542 7.4178801
-2.7295623 5.6957092 7.0638204
-6.4571609 5.4575324 7.9219012
-6.6555529 5.4612722 8.1642332
-6.8062701 5.6164479 8.1305704
-4.2892756 5.740684 7.2376575
-7.4431438 5.7894874 8.9639006
-4.639956 5.9443555 7.9691811
-6.5379853 5.8930912 7.7391334
-6.9095073 5.9381332 8.1861324
-4.7980032 5.9952826 8.2004976
-7.0402842 6.0293431 8.92379
-4.8489394 6.0978413 8.3037806
-4.691967 6.1549187 8.048439
-4.7160225 6.1775255 8.0353727
-6.8669744 6.2440577 8.0951405
-5.1465077 6.4309835 8.8490667
-7.0051727 6.4830966 8.7275801
-2.0849884 6.3178291 7.5651608
-7.5910063 6.9008913 10.645242
-5.0674973 6.6185064 8.8486776
-7.5075355 6.9077387 10.218727
-7.540319 7.1543555 11.194198
-1.8659008 6.4845486 7.5695782
-2.1394699 6.5179782 7.5744123
-7.5532212 7.0812154 9.7073641
-7.4738312 7.3312168 10.453682
-7.455966 7.0193243 8.8832579
-7.5567408 7.6073766 11.479513
-7.1359305 7.2050276 9.0849457
-5.1500053 7.1115079 8.773613
-6.9249506 7.0798135 8.1532125
-2.0159686 6.9235311 8.2586679
-2.1577833 6.9169865 8.0171642
-2.0125046 7.0571504 8.5370102
-2.0067585 7.2577887 8.6385975
-2.5633659 7.3280864 8.6798172
-7.2128258 7.5173535 8.2444601
-1.8660496 7.3917985 8.8401413
-7.6614575 8.9743319 12.044349
-1.6941488 7.4445405 8.9322491
-2.2446196 7.4575028 8.7897415
-2.1104906 7.3904743 8.6406288
-1.9787761 7.4801745 8.8912115
-6.3383741 6.8719635 6.4032545
-7.5599327 9.0750313 12.047246
-5.8130155 8.0103464 9.5263662
-1.9142147 7.3639112 8.5320597
-1.6737038 7.5363979 9.0336304
-1.7762339 7.4338202 8.6536579
-5.7286787 8.1268682 9.5052166
-7.2757797 7.7778964 8.1589136
-3.2406387 7.7033653 8.7663412
-1.7750049 7.828228 9.2148304
-2.1729872 7.7046666 8.7695341
-2.1434171 7.6962509 8.7596741
-2.0025806 7.7417817 8.8963394
-2.1101298 7.7328706 8.7800503
-1.9093012 7.7864757 8.8616495
-1.8454695 7.8044057 8.7991667
-1.7548717 7.88132 8.9536514
-1.7385782 7.8868432 8.902729
-1.9875915 7.9641695 8.981657
-4.9713998 8.3733721 9.148448
-3.7248602 8.278203 9.1901903
-3.2569077 8.3229198 9.2123909
-1.425153 8.1781254 9.343214
-1.2900618 7.8889823 8.7830782
-3.1278677 8.3424435 9.2430696
-3.300231 8.3428812 9.0949926
-1.3187411 7.9231696 8.7352848
-2.9962265 8.4409485 9.3102455
-2.6421897 8.3436623 9.2189713
-1.4417815 8.1065083 9.0067778
-1.3746064 7.8926859 8.5853176
-5.5346789 9.1405382 9.9583426
-7.394434 9.0533504 9.2254
-4.18889 8.591197 9.0936747
-2.4342713 8.4353857 9.1475382
-2.0640504 8.4017506 9.1596928
-7.9317017 9.2265844 9.236701
-1.8566217 8.5103817 9.3284845
-1.4124029 8.7259808 9.8765869
-3.2513201 8.7225609 9.3590546
-1.4714323 8.269105 8.936492
-2.4635637 8.7687988 9.5591736
-2.0195608 8.7191124 9.5620565
-2.514792 8.7296448 9.4259729
-6.9680347 10.594109 11.486786
-4.2179193 9.0979662 9.5375862
-2.2576685 8.7999592 9.5352058
-1.473103 8.6018143 9.1675634
-1.5888168 8.4680176 8.8238611
-7.795927 10.331329 10.221903
-1.5036788 8.7208805 9.1562672
-2.5871089 8.6808834 8.6450443
-2.1488831 9.0306292 9.281929
-0.94328493 8.9010639 9.4140739
-1.2203991 9.0726919 9.5500374
-2.4769828 9.385416 9.5728636
-2.4563572 9.3014774 9.4474611
-1.0760757 9.1434908 9.5856924
-2.0385456 9.4122419 9.6718855
-1.301213 9.7691326 10.329507
-1.1057037 10.702496 11.57894
-0.96437496 9.4676447 9.8497658
-1.8901649 9.8147755 10.027767
-1.2590355 9.3982677 9.6035137
-3.9135766 10.603594 10.537174
-1.8724707 9.9467201 10.09502
-1.2855275 11.032825 11.754074
-1.1350571 9.5893259 9.7812767
-2.0007594 11.176513 11.563899
-2.8105004 10.818751 10.512107
-1.7030312 10.384725 10.093428
-1.402791 10.202641 9.9274979
-3.1235209 11.460218 10.830503
-8.3892202 11.526368 9.4654655
-7.712214 11.364098 9.3617907
-1.3079758 11.239954 10.933602
-5.4238734 13.416451 12.166185
-2.2626686 11.89187 11.30258
-2.6468754 11.851383 11.055566
-8.0552416 11.386042 9.0442629
-8.0203533 11.757786 9.4677505
-8.2929964 12.148787 9.7290154
-2.5814288 12.171246 11.326483
-2.3410833 12.57044 11.120418
-2.1578243 12.15938 10.754228
-2.0767136 11.64059 10.110318
-1.8114623 12.490355 11.03083
-1.9373405 12.694559 10.939354
-4.094285 14.344543 11.116123
-4.027091 14.253592 11.056047
-3.9763114 14.267939 11.039574
-7.049005 5.9011393 8.3965473
-7.871129 6.6890936 9.6919718
-7.5210123 6.7822638 9.6438856
-7.6039886 7.230597 10.322696
-7.4760532 7.4994593 10.311834
-7.5346975 7.8713331 10.799556
-6.9094615 7.6563468 9.8327961
-7.7866616 8.2196035 11.608994
-7.3467312 7.6949325 9.5922174
-6.0451121 7.846838 10.01338
-7.9825273 8.9431868 12.445376
-2.0607169 7.3387041 8.6417427
-5.2859368 7.7925024 9.2645674
-1.8296221 7.3159747 8.5499763
-7.3157778 7.959929 9.2616053
-7.563952 8.8900137 11.75386
-2.2243776 7.5108566 8.8590107
-2.3229146 7.6069179 8.8653193
-3.6893065 7.7994862 9.0104408
-2.2487881 7.6417136 8.8928213
-1.9379499 7.4941535 8.5131645
-1.8669075 7.4977403 8.5359306
-1.903246 7.6109281 8.7385931
-5.1976309 8.136507 9.2705908
-2.0227892 7.667172 8.6412172
-1.7256564 7.7729826 8.8213615
-7.3106961 8.388298 8.8378048
-7.5763421 8.778779 9.6267004
-2.0003893 7.9017029 8.9112215
-3.7614512 8.1605577 8.9230137
-2.209415 7.9680858 8.8800745
-4.2589827 8.3013687 9.0696087
-2.8649049 8.0986776 8.9457321
-2.7104414 7.9908171 8.686265
-2.6125925 8.2723684 9.2866459
-3.2495279 8.2786598 9.0069466
-2.2062473 8.2787962 9.1870155
-2.7319756 8.4325724 9.2998867
-3.6062021 8.6410809 9.3290854
-2.0087945 8.3718214 9.2083473
-5.7505841 9.731245 10.522356
-3.4485786 9.0008717 9.7555676
-2.0990186 8.5828829 9.1343012
-1.5336292 8.8111973 9.6661463
-4.3530331 9.1507797 9.5085278
-4.0822573 9.3968468 9.9889164
-7.8008108 10.237017 10.347054
-3.1103487 9.0415239 9.4803867
-3.4989707 9.1563082 9.4008503
-3.0279016 9.0993128 9.4601984
-3.6377358 9.407033 9.6516237
-2.9233675 9.1803904 9.4856672
-3.7017748 9.6409597 9.9341536
-3.6969419 9.6626387 9.8963575
-2.9636686 9.2960882 9.5319843
-1.7197627 9.1194134 9.5653715
-2.6518958 9.8491096 9.9100256
-2.664851 10.244543 10.383699
-1.697147 10.511832 11.024097
-7.6457381 10.234689 9.0160255
-4.2260952 11.09717 10.773
-3.9588084 11.114785 10.870315
-2.5303311 10.602547 10.594241
-1.9000635 11.148766 11.436381
-1.2127376 9.5022335 9.3652296
-3.6932306 11.435023 11.051274
-7.9972062 11.271498 9.4201298
-1.9616491 11.477992 11.134473
-8.2182131 12.017025 9.7769547
-1.954272 11.936032 11.330948
-2.4461703 12.907339 11.112313
-2.2251208 12.073336 10.376637
-2.0887206 12.171137 10.513875
-2.4801831 13.063793 11.001649
-2.2146795 12.717932 10.662694
-3.0277612 12.970828 10.246126
-3.7729177 5.2466459 7.3200717
-4.3841438 5.4045987 7.4906211
-4.4753914 5.3968554 7.6034613
-3.3504908 5.5780396 7.9618936
-4.4715495 5.6772537 7.7931323
-7.0957389 5.7789135 9.2283659
-4.6808991 6.0336289 7.9189572
-4.6804447 6.0624399 7.9698792
-7.3608122 6.1351929 9.007575
-4.6203442 6.1263194 7.9449658
-7.3936162 6.1620321 9.0348701
-4.6359301 6.1935263 7.9055018
-6.4127431 6.2072444 7.5606112
-6.5964608 6.2580404 7.2832861
-1.7862247 6.4769239 8.383111
-6.8036523 6.4001899 7.9450006
-6.8532357 6.484776 7.9349265
-5.1196485 6.618536 8.7508545
-1.8191217 6.5656223 8.3845539
-1.8126311 6.611331 8.5318613
-5.2896748 6.7511172 8.7301693
-7.3004808 6.9088516 9.4330111
-4.9771776 6.7608681 8.5399466
-4.8088617 6.7221875 8.2227201
-7.646471 7.2771845 10.360384
-3.1747777 6.7180247 8.0436535
-7.1574059 6.9769497 8.5960512
-5.6451445 6.5109882 6.6360602
-6.8013163 6.9084229 7.9669681
-7.5435452 7.3847399 9.8812075
-5.0070076 6.9809613 8.5191088
-2.2902241 7.0054326 8.2468405
-5.1738529 7.395484 9.1591024
-1.9203469 7.2575836 8.9115467
-1.8373154 7.1773624 8.7020092
-6.5672321 7.0198798 7.3430715
-1.9818702 7.2074366 8.6237345
-1.7211735 7.3288908 9.0907421
-7.1967039 7.4321551 8.466177
-6.6583037 8.0486422 10.560091
-5.1036186 7.488884 8.9622412
-1.7986733 7.3398762 9.0223169
-2.7916944 7.2597489 8.5015602
-1.3627849 7.5058336 9.523715
-2.0957773 7.3377857 8.7015953
-5.3220949 7.7456293 9.2826939
-2.1248157 7.3513761 8.6539755
-1.8735831 7.3209682 8.550024
-6.3010554 6.8859329 6.4027667
-2.1707582 7.4462304 8.6877184
-2.2359633 7.4998522 8.7416153
-1.9170083 7.358315 8.4201508
-6.3439288 6.9318662 6.4006495
-5.1020522 7.8380637 9.0700378
-6.3258114 6.953608 6.4024878
-2.5319591 7.4735937 8.4590034
-2.1933234 7.5770354 8.8210936
-1.7502953 7.8252106 9.6019096
-6.6497583 7.0668917 6.5939631
-4.8498292 7.8909326 9.0675049
-2.2997496 7.4901986 8.4671078
-1.7962697 7.8863311 9.5356493
-2.3393278 7.5994558 8.6138554
-2.1756558 7.6733155 8.8451958
-2.1454718 7.6580315 8.7334566
-7.8456502 9.4939804 12.027688
-5.1262798 8.1786232 9.2554455
-2.6296968 7.6337228 8.4330883
-2.273952 7.6748323 8.5980616
-2.5256271 7.6748304 8.4825468
-4.8294439 8.0860643 8.87714
-2.302072 7.8769174 8.9120312
-1.8078917 7.8359747 8.9132252
-1.7630056 7.7706723 8.7625608
-1.4355156 7.9426031 9.2644291
-1.5423187 8.0459785 9.4204693
-0.98688692 8.3546228 10.261888
-7.3976665 8.0143766 8.0624771
-5.5116062 8.433939 9.3714428
-2.9680061 8.0715647 9.1413555
-2.1233828 7.9559131 9.0237398
-2.8849764 8.0236292 8.9531546
-2.2919686 7.9691839 8.8971043
-2.1732597 7.8575916 8.6830606
-7.5647802 8.8290339 9.5276575
-4.5311785 8.2093029 8.8611336
-2.7761436 8.0506716 8.8790932
-2.0490758 8.0432863 9.0140228
-5.528121 8.759655 9.6857538
-3.2927113 8.2828407 9.1842985
-3.277065 8.40588 9.4683113
-2.607852 8.3102665 9.2378321
-1.6346638 8.292963 9.4192152
-1.3035204 7.9259076 8.7353983
-3.9150527 8.73911 9.6745987
-1.2343541 8.4613199 9.7185411
-2.2412074 8.1374426 8.7394419
-1.8616132 8.2558432 9.0781317
-1.7846383 8.4555197 9.4343643
-7.5496278 9.3328152 9.6204081
-4.160543 8.7480783 9.228508
-1.9746921 8.6014013 9.4743567
-1.1584365 8.6735268 9.8105822
-2.3610539 8.3466463 8.8210382
-1.9549705 8.7266474 9.5616732
-1.4865999 8.6161041 9.4801264
-1.3469677 8.6715183 9.62185
-1.7326567 8.8826094 9.846323
-1.6778626 8.7818279 9.6802073
-3.2008183 8.984519 9.6041536
-1.4159651 8.5468283 9.1299543
-2.7364194 8.8917837 9.3651991
-1.1510345 8.5765505 9.1761723
-1.0672841 9.0975018 10.015663
-2.3602202 8.7937965 9.1430178
-1.8188672 8.9841709 9.5370026
-1.4585496 9.5392828 10.551758
-1.449882 9.3599577 10.232061
-2.517494 8.9456997 9.2295904
-2.6387448 9.1930227 9.5633507
-2.5766418 9.2237701 9.6154661
-1.4188715 9.099371 9.6946936
-2.5302775 9.0673246 9.2848711
-1.3525697 9.4235573 10.182495
-1.2852364 9.0140514 9.5198574
-1.3250346 9.5248461 10.267766
-1.4615133 8.732214 8.9150505
-1.0900564 9.600421 10.310952
-2.6215641 9.4508591 9.5535955
-2.8599868 9.6739674 9.7639742
-1.7077341 9.9336042 10.454027
-1.0532732 9.8339796 10.356958
-1.3947253 9.7911873 10.091589
-1.5094118 10.241695 10.480868
-1.3917762 9.7658577 9.7902937
-2.5393395 10.675042 10.649001
-8.0587463 12.00473 10.813272
-2.7115896 10.560102 10.305849
-1.6311959 11.423072 11.69288
-4.9797993 12.568442 12.072778
-5.1724319 13.224087 12.767618
-2.4475315 11.530454 11.270656
-1.7540934 10.573704 10.247111
-3.9669342 12.586596 11.946638
-2.8573339 11.797177 11.276301
-1.6217053 10.831318 10.427706
-2.5846303 11.516062 10.864137
-1.8433458 10.285003 9.6007519
-1.2571627 10.780965 10.386336
-1.652986 11.046492 10.092342
-2.0815883 12.478075 11.074347
-2.4217789 13.133751 11.280242
-6.4738798 6.1410885 7.5383234
-6.4111094 6.1663408 7.5103011
-6.6634116 6.2866554 7.7491937
-7.2165308 6.8168421 8.9763184
-7.4561296 7.37255 11.606111
-3.2270076 6.7480559 8.0717335
-2.0283582 6.9218354 8.6398449
-2.4023888 6.9609685 8.5305262
-6.5217981 6.8511262 7.2127094
-7.4219155 7.3289089 8.5354929
-7.127152 7.5591736 8.9580431
-7.2352195 7.3892488 8.2588062
-7.3017597 8.3078127 11.075002
-6.675076 7.1522231 7.3785996
-2.3732488 7.5908422 8.977869
-7.360239 7.8962531 8.8263416
-7.1443319 7.7318487 8.246562
-7.1606288 7.8323784 8.520071
-5.4344745 8.099472 9.2283306
-3.4005451 7.8140855 8.8713722
-3.1152711 7.6937113 8.6311111
-5.4616866 8.1275015 9.1942959
-5.0392938 8.0218248 9.0106897
-4.0789928 7.7652392 8.5530453
-2.0461178 7.7765079 8.9706621
-3.1104078 7.7644372 8.5820904
-1.7097237 7.881443 9.158103
-4.9622955 8.1150551 8.9817629
-4.9264164 8.147006 8.976778
-4.8953614 8.150033 8.9905415
-4.5172782 8.1861649 9.0619717
-2.5272489 7.8556604 8.6980467
-2.0128748 7.851645 8.784421
-1.9839389 7.9183507 8.81283
-2.681823 7.9062829 8.5734968
-4.4042878 8.3377533 9.0104036
-3.6877918 8.3133955 9.0160742
-2.7738202 8.2917604 9.1795816
-3.3562474 8.4876623 9.2348251
-2.9011939 8.451993 9.2813387
-5.1432753 8.9502506 9.6933737
-3.9590719 8.9231815 9.8893814
-4.5568862 8.6506338 9.1467857
-3.7534738 8.9087133 9.7417021
-3.3893418 8.9242926 9.8290043
-4.3003521 9.0135546 9.650012
-3.3394613 8.8299723 9.5333824
-2.6072078 8.6246595 9.3142967
-3.0358055 8.6067238 9.0812263
-4.8429623 9.4715595 10.240836
-3.3318903 8.8746414 9.4651575
-2.9946976 8.6573486 9.1364059
-2.9634385 8.6881199 9.1953812
-3.3264754 8.9581203 9.510848
-1.4238232 9.5473318 10.778142
-3.1474578 9.0964451 9.4455194
-2.7963271 9.0848675 9.5526733
-2.8697832 8.9488363 9.2461472
-7.6628761 10.596294 10.745585
-2.9191132 9.0245581 9.2748566
-1.8399978 9.1964359 9.7664299
-3.240133 9.5675821 9.8862362
-7.9953203 11.307112 11.407171
-4.0883508 9.9001293 10.060598
-8.2520437 11.408837 11.106929
-2.7654502 9.5201283 9.5313778
-7.6529403 10.293229 9.384201
-1.577832 9.9891405 10.445477
-2.2336359 10.53717 10.980392
-1.7030261 10.290435 10.754721
-1.1921214 10.590617 11.295125
-3.5524588 10.602209 10.377467
-1.0643772 10.750622 11.267817
-8.0923405 11.209976 9.9905634
-1.9653263 10.627318 10.704693
-4.4426827 13.000336 12.377575
-8.4435387 12.289529 10.112105
-2.4227848 11.22476 10.459517
-8.3683033 12.182556 9.9257288
-8.2838697 11.684394 9.2752275
-2.0002215 11.773343 11.112309
-2.0875397 11.699282 10.614974
-2.2934854 11.473766 10.208107
-3.2586651 13.469844 10.354145
-3.3222933 13.863111 10.603167
-7.4927039 5.2543817 10.358029
-7.8452291 5.3968673 11.022234
-8.5212631 5.7127786 11.483078
-7.1430759 5.8522382 11.184807
-7.4734969 6.0396643 10.261287
-6.7747846 6.1080437 7.8838234
-8.4244947 6.4218087 10.643805
-8.0789261 6.7502108 12.38203
-8.2716789 6.9052739 13.829277
-4.3694596 6.3871818 8.0810804
-7.9066525 6.6854324 10.860596
-4.6510768 6.4651074 7.9439769
-4.6223497 6.4891467 7.934907
-6.7771673 6.4887052 7.7822967
-7.3027906 6.6228619 8.7689171
-7.4793639 6.4493656 7.4580951
-7.2270284 7.0066752 10.90577
-7.6519647 6.9552226 10.141675
-7.4939227 7.1129332 11.227515
-7.7243943 7.0520945 10.207021
-7.8874369 7.5371699 12.369675
-7.6240077 7.4681616 11.843102
-7.4059739 7.1866274 10.003751
-4.4178748 6.8044715 8.2510443
-7.6533899 7.0544605 9.2367573
-7.7632771 7.1997471 9.926013
-6.0678434 7.2870502 10.359077
-2.1629477 6.8134904 8.1260958
-2.7880337 6.950088 8.1953897
-1.9114268 6.9902196 8.4843388
-5.8636532 6.7378721 6.6128531
-1.8221136 7.1398954 8.8089275
-1.8963993 7.0332475 8.3699875
-6.9428515 7.0360479 7.6100445
-7.2216287 7.9338002 10.840708
-2.5415392 7.0922871 8.2985058
-5.3364325 7.4201493 9.0567589
-2.0569274 7.1815515 8.4840097
-6.7078533 7.4910555 8.8017721
-7.2722163 7.4532127 8.3363276
-4.9604249 7.552319 9.0222397
-8.0958118 8.8636084 12.747604
-1.9177997 7.6380267 9.4356337
-7.2749906 7.6409411 8.4651012
-7.6685648 7.8176279 8.8950834
-3.0118155 7.5508866 8.7162781
-4.9035649 7.9789395 9.4499941
-7.2199998 7.9019489 8.5952606
-3.562114 7.8254571 8.7852011
-4.680244 7.8842425 8.6351261
-3.5310171 7.8523359 8.7765045
-8.1275215 8.4522104 9.3007517
-4.8163357 7.9972901 8.8111858
-3.0739245 7.9977012 9.1812668
-2.4954724 7.7789936 8.701149
-4.8478036 8.112999 9.0058584
-2.9650519 7.8766785 8.6969833
-1.0185729 9.0190268 11.585543
-7.3502078 8.648016 9.3176756
-3.4065907 8.2332268 9.2012568
-3.4259343 8.3742094 9.4345589
-2.6489875 8.2271719 9.1935749
-3.9902704 8.2366915 8.8517694
-3.5437169 8.6894798 10.042706
-3.1990125 8.3603859 9.2899151
-4.7224941 8.4993677 9.2296629
-1.9319938 8.0602179 8.8292208
-0.8603698 8.8715076 10.909012
-2.1180301 8.3053303 9.2018194
-3.3752398 8.7283602 9.7599783
-1.4489018 8.8870306 10.021948
-2.5347557 8.6965609 9.3239622
-2.2691126 8.5616903 9.1230307
-4.0007119 8.9980803 9.4884024
-3.3594723 9.0538368 9.639307
-1.2465243 9.115263 10.211868
-4.6187954 9.8007822 10.548163
-1.4051706 8.8885031 9.6739283
-3.6330969 9.1456232 9.4250212
-2.4086473 8.9964409 9.4740362
-2.6517677 9.0082026 9.3695669
-2.4952998 8.9278479 9.2618961
-3.0464146 9.3747597 9.8443813
-2.354681 9.1713877 9.6745195
-1.2918893 9.2793598 10.14717
-5.5224028 10.918009 11.47512
-4.1113052 10.116112 10.493558
-2.7968454 9.5795679 9.69491
-1.5585536 10.115874 10.817406
-7.9378681 9.97925 8.8405771
-2.1692019 10.904246 11.579063
-2.014334 11.663657 12.468417
-1.358302 11.267638 12.008807
-1.7624992 11.383893 11.956797
-2.1193986 11.471991 11.925932
-1.9368526 11.412598 11.864268
-1.7066274 11.594484 12.203385
-1.7101392 11.619506 12.154291
-1.5087608 10.457739 10.598781
-2.5366988 12.011171 11.975029
-1.3377728 12.22965 12.186598
-4.7314854 12.762627 11.795361
-2.7241316 12.380379 11.723832
-2.5243411 12.812094 12.186049
-3.0601223 12.586329 11.719695
-0.87954247 12.43214 11.6631
-2.1643252 12.875954 11.615388
-0.95396984 12.769089 11.839175
-2.5800121 12.988501 10.668407
-2.9244668 12.714616 10.210082
-2.6319106 13.435502 10.953546
-3.0530317 12.776472 10.164571
-2.9718404 13.133368 10.513403
-3.8491299 13.783515 10.783714
-3.6649745 12.84325 10.001103
-3.3933017 13.22583 10.231626
-3.3751945 13.410243 10.342483
-2.9113913 13.703561 10.566229
-4.0345387 5.5082207 6.96245
-6.236269 5.3335319 8.8335848
-7.0249186 5.3485537 8.740181
-6.8622365 5.3680377 8.5905972
-7.5878134 5.3758788 8.9405565
-6.6458921 5.640461 11.883354
-7.9529653 5.6286964 12.648191
-6.7841721 6.1467476 8.5633059
-6.9292483 6.1518159 8.0731096
-6.8293743 6.1568222 8.0495853
-6.6059122 6.1897149 8.1623459
-6.9892316 6.219171 8.1590214
-6.8949795 6.306879 9.3122683
-7.921771 6.5600719 11.343729
-6.9522014 6.2676778 7.5914979
-6.8519268 6.3856506 9.0037594
-7.3324704 6.2678471 7.4849038
-7.0012975 6.4689565 9.1308022
-6.9152131 6.4956827 9.2286015
-7.1297021 6.5205398 9.0352516
-4.9710503 6.6241574 8.7899151
-7.8334804 6.8567414 10.333452
-5.0347848 6.6742764 8.9407158
-7.6634359 6.7352428 9.0129452
-7.2387185 6.8028908 8.9382458
-6.6474175 6.7962546 7.9631081
-7.5328398 7.1891642 9.9167452
-7.5588856 7.6520057 12.379948
-5.1099215 6.9209623 8.7039919
-6.9574561 7.2233267 9.9389915
-2.0713904 6.9377093 8.7506056
-6.3443351 6.815959 7.5988827
-5.7682066 7.2724609 9.6342049
-7.1462679 6.9406304 7.8476925
-7.422514 7.3583508 9.7738857
-7.2231812 7.25699 9.1550093
-4.999258 7.1154237 8.7499475
-7.7837625 8.0540266 12.296696
-2.6883121 6.9674559 8.1272316
-2.665354 6.9713354 8.1475792
-6.8820968 7.0640316 8.0630035
-7.5160112 7.6928763 10.361403
-6.7163897 7.1023712 7.9905777
-8.2177839 8.3067331 12.553179
-7.766623 8.1606007 12.0193
-7.7952127 8.1885939 11.71306
-6.7175241 7.214087 7.8831139
-7.4427261 7.5036306 8.8889475
-7.1598301 7.4797931 8.6207247
-7.0319986 7.4050331 8.1135778
-5.4237022 7.6434131 9.2962894
-6.7754197 7.345489 7.7812958
-7.4107704 7.8537574 9.4460974
-4.7904954 7.5129876 8.658761
-7.783258 8.8237963 12.246523
-5.0692396 7.6451569 8.8463039
-7.0744448 7.5593243 8.1889296
-7.4550829 7.8050261 8.6615143
-2.3188148 7.6824932 9.149332
-3.1838007 7.7557592 8.9649296
-7.7826681 8.2032394 9.3795147
-3.2601728 7.7866039 8.7499371
-7.2001138 7.9523268 8.4199295
-7.3706532 8.0523338 8.6501923
-7.420094 8.1596899 8.9267998
-3.3827941 7.745688 8.4998751
-4.742734 7.9506865 8.7579594
-2.5778821 7.7159863 8.4806166
-3.0870326 7.8837385 8.7321615
-6.6689434 7.817246 7.7451024
-7.8089595 8.5362167 9.3513155
-4.6683145 8.0707436 8.8220301
-7.4464431 8.2732878 8.6160364
-2.6645205 8.1446066 9.2950726
-4.637135 8.196907 8.7711382
-4.1066566 8.2365589 8.9884357
-3.6378241 8.1133261 8.7221355
-6.6413975 7.9709301 7.7073622
-7.1808538 8.1571245 7.9908772
-7.8924913 9.9664574 11.996244
-2.6482346 8.4032679 9.3770971
-2.5923016 8.3170328 9.156415
-4.5058637 8.3713379 8.7809486
-1.5170202 8.6336355 9.9436264
-4.1419368 8.4857445 9.018404
-4.1286173 8.5117092 9.0930138
-2.3666046 8.3543396 9.11094
-1.569627 8.5719671 9.6858826
-6.8267393 8.1223965 7.5671029
-3.2404864 8.4267311 8.9751644
-2.7160344 8.3999186 9.014883
-1.6777409 8.7852755 10.000089
-3.0647893 8.4234762 8.8807945
-2.4949403 8.7813625 9.7411919
-1.2019261 8.9631901 10.39665
-7.2661815 8.5958538 8.215951
-4.6464725 9.0137949 9.650034
-1.7418507 8.8453026 9.9440584
-1.3578377 8.6938782 9.7372665
-7.430686 10.654218 12.266243
-3.8350623 8.8301458 9.3610592
-1.7826573 8.7107916 9.5757437
-4.0247121 8.6827888 8.9837208
-1.0772753 9.3923054 11.033075
-4.0287576 8.8475285 9.217227
-6.8998175 8.2159214 7.2653213
-2.9052708 8.7238045 9.1540451
-2.6577125 8.6469393 8.9797525
-2.3265221 8.7533064 9.2638817
-1.4088193 9.0795469 10.101176
-2.4816916 8.7265368 9.1229439
-7.4001641 9.82477 9.724864
-2.2775733 8.8374872 9.12885
-1.4187089 9.2738676 10.10226
-3.4355564 9.4136114 9.5673571
-6.1255751 11.330182 11.764254
-3.9662774 10.006659 10.138466
-1.6717602 9.8211679 10.390705
-2.0750854 9.8603973 10.18491
-2.1433585 9.7451105 9.923048
-1.4560095 10.125624 10.622335
-1.2867229 11.556864 12.734011
-2.1639943 11.222966 11.905722
-3.7616954 10.592707 10.323604
-1.7896149 11.624765 11.944065
-6.8160963 9.2903605 7.3035374
-2.8583157 11.812553 11.578968
-2.5433502 11.588996 11.312703
-1.3652387 11.137329 10.701743
-2.150749 12.070327 11.611863
-2.1307185 12.390721 11.614491
-2.2299359 12.747774 11.369835
-1.8734004 13.07459 11.226793
-2.8303356 12.632273 10.122562
-3.8916066 14.061061 11.077867
-3.5496998 13.943161 10.805473
-7.4653654 5.4788594 10.457075
-7.5807829 6.44486 10.241277
-7.9363089 7.8876562 12.570413
-6.8637466 7.1037908 8.108428
-5.1594138 7.3061638 9.1395025
-6.2990537 6.9195933 6.9717231
-7.391541 7.6751723 8.9168568
-7.2028193 7.7597146 9.3005428
-7.6510859 8.5215511 11.515653
-6.8160353 8.2184086 10.572709
-7.5782423 8.5758448 11.011504
-8.1739893 8.1312704 9.4889736
-7.8425102 8.8903646 11.360569
-8.0054703 9.4941158 12.822019
-7.9113483 8.8583784 10.9615
-7.3890557 8.5213337 9.8874054
-7.7157931 8.3720369 9.2949371
-3.0354521 7.8454199 8.8267136
-1.5158224 8.0685005 9.437088
-4.3818097 8.1077547 8.8840046
-4.3265114 8.1115398 8.9273977
-2.8438551 8.1454048 9.2943163
-1.9859599 7.9908524 8.9127417
-1.6269482 8.1106691 9.2648058
-1.5966258 8.1412735 9.269269
-3.6369905 8.5800142 9.5994635
-3.3229232 8.1110935 8.6013069
-1.8111879 8.0678778 8.8553247
-1.9742651 8.2048597 8.971385
-2.7003005 8.3944769 9.1284323
-3.3208146 8.4020319 8.9583759
-3.0566661 8.4181414 9.0889397
-4.2547531 8.8127184 9.5464087
-2.8687501 8.3970423 8.9860716
-2.2118325 8.5113583 9.1276007
-6.8881893 8.1293182 7.251667
-4.1680951 8.8200607 9.1432533
-3.7068958 8.8395338 9.2358465
-3.2987983 9.2926226 10.194304
-3.0394108 8.8195744 9.3599977
-2.7217484 8.9616661 9.6989136
-2.449671 8.6017761 9.0240326
-5.2653575 9.7894831 10.486424
-2.6066251 8.7551641 9.0589094
-2.4506383 8.9119148 9.2941008
-2.2425158 8.6034765 8.794363
-2.221282 9.2529812 9.9118443
-2.9656608 8.9812307 9.1877604
-2.4710357 8.9504547 9.1001005
-2.2965279 9.1723747 9.5211363
-2.2557375 9.0595512 9.3428326
-2.6923907 9.2581711 9.549984
-2.8504298 9.2930374 9.3432274
-2.7367609 9.1943521 9.13556
-4.2800384 10.379756 10.511997
-4.2877154 10.738906 10.899326
-4.5051408 11.691117 11.137224
-1.9951551 11.300261 11.159234
-2.6919465 11.53051 11.062429
-3.3247316 12.587143 12.060083
-1.9663436 11.314131 10.853631
-2.4308984 12.843409 12.316276
-1.6736659 11.614549 10.35924
-1.555395 11.963009 10.713219
-2.081259 12.578571 10.67813
-2.0792944 12.866114 10.855609
-2.1100888 13.633783 11.441711
-2.0982463 13.14571 10.919508
-2.4008548 12.219273 9.895936
-4.6158423 5.1671815 8.1338892
-7.3530769 4.5203862 11.463038
-7.4731135 4.8467393 11.424222
-6.7925482 5.3014202 10.796044
-7.1905761 5.3599572 11.243938
-7.4295559 5.3551931 11.731237
-7.1364322 5.4494271 11.208217
-7.0149674 5.5138674 10.891242
-8.5051842 5.8563404 9.6310425
-7.6958723 5.9850674 12.029382
-5.6393661 6.0803318 9.5255928
-8.1138496 6.1205959 10.859802
-7.7874665 6.1417923 11.488427
-6.5646715 6.3330746 11.257495
-6.9317851 6.3121872 8.4375782
-7.6379929 6.4526811 10.851166
-7.4126015 6.4836802 9.8534241
-7.4591761 6.6033988 10.967896
-7.5314474 6.4550138 8.7987003
-7.559453 6.654429 9.1197634
-6.9849796 6.6041183 8.2064943
-7.3304062 6.7885981 9.7555704
-7.8344588 6.7564874 8.9965553
-7.1225839 7.7775097 11.22823
-7.6552467 7.6148796 10.175168
-7.8321176 7.9227991 11.22078
-7.6664281 8.1773939 11.727995
-2.5727959 7.2482872 8.3960743
-7.6786032 8.0198097 10.442903
-7.1306281 7.5733495 8.4924707
-6.511642 8.0030794 10.207664
-8.1986656 8.4105864 11.306424
-7.5591512 7.6245413 8.5013523
-5.8882909 7.9594631 9.7417021
-7.1410203 7.7862315 8.3148899
-5.8851438 8.2825346 9.9543524
-7.4395056 8.4104881 9.4745817
-1.9170321 8.4712572 8.9039974
-4.1804476 9.6779261 9.9171638
-3.1044149 9.2697897 9.4140825
-2.3226843 9.8190136 10.131901
-1.4787607 11.29504 12.278934
-6.6789479 9.2075644 7.0184512
-6.6846995 9.4639711 7.209507
-7.1726561 9.8309412 7.3465185
-2.2655878 12.722437 11.863935
-8.2392826 12.291053 8.8174953
-7.7949553 4.7383766 11.892722
-7.0474339 5.2097788 11.000191
-6.7239232 5.2042575 12.122304
-7.2894754 5.4791698 11.210318
-7.2227864 5.4907794 11.181542
-7.0403461 5.6312838 10.831582
-7.3304329 5.8332839 10.31163
-7.7957764 5.8459363 12.297852
-7.1661019 6.1583228 10.103948
-7.6021676 6.2536697 11.368977
-7.0458589 6.4493637 12.24876
-7.5892062 6.4014235 10.366471
-7.3863087 7.0377665 10.835367
-7.6261621 7.4188685 10.697287
-7.6063242 7.5743256 11.348844
-7.8529739 7.9680967 11.472485
-7.8971391 8.4829454 12.055475
-7.4718542 8.3860617 11.64384
-7.6930203 8.2463036 10.601278
-5.4520159 7.9493217 9.6112823
-7.4749398 8.3210564 10.33281
-2.4689341 8.7248964 9.9485111
-3.2104778 8.8311911 9.6784706
-1.2947993 8.886569 10.179097
-3.4625311 9.0376587 9.7825966
-3.5425799 9.0104713 9.6225719
-1.3788389 8.9803238 10.000217
-4.1319256 8.8591394 9.1524544
-2.0038326 9.656168 10.811933
-1.9947674 9.6720142 10.617534
-7.2301402 9.1111908 8.2041883
-7.5797 9.6243658 8.8847828
-3.4729159 9.3903131 9.2129688
-2.9532914 9.8403339 9.8888865
-2.2172561 10.568716 11.217555
-1.8767246 11.553723 12.855802
-7.7327156 10.205477 9.0580015
-7.8937407 10.478693 9.1234369
-7.8036361 10.482742 9.1369972
-2.1885805 11.415192 11.407281
-8.1417694 11.195501 9.1089592
-3.0512776 11.737123 9.9588175
-7.3245096 5.105823 11.160625
-7.4644761 5.1886239 11.822447
-7.4197717 5.3945055 10.427258
-7.4820914 5.4278355 11.722044
-7.3339014 5.5143037 11.167186
-7.3217931 5.5634422 11.409037
-4.5146365 5.9752226 7.7050495
-7.7290258 5.6706443 11.133105
-2.9332886 6.1553259 7.5239415
-7.3892598 5.9067817 9.1684704
-7.663763 6.0878191 10.316508
-7.6842027 6.3410711 10.621746
-7.5469451 6.5220084 11.305545
-7.4077568 6.5350308 11.332251
-7.6011753 6.5509205 11.744243
-7.536593 6.4414682 9.1886425
-7.5135374 6.5868702 11.492845
-6.9981322 6.5158901 8.9103308
-7.5103703 6.7486038 10.817722
-7.1908212 6.8445678 10.870569
-7.7668562 6.7781324 9.9365025
-7.3580036 6.8834043 11.05799
-5.3720336 6.7354245 9.1639185
-7.4586477 6.6950564 8.8102474
-7.6327162 6.8815184 10.557425
-7.150867 6.9775038 10.94579
-7.145112 6.7756495 9.0226841
-7.2047176 7.3263445 11.051191
-7.4163494 7.3555989 9.3905802
-7.1281333 7.2073998 8.2611151
-5.3428512 7.413712 9.035037
-1.3731821 8.0739508 12.043863
-5.3143549 7.5535336 9.2365408
-7.9620667 8.6526289 12.963377
-5.2789745 7.6172538 9.0003395
-7.0359364 7.5916576 8.3433771
-7.8958149 8.1147699 10.151622
-7.524209 8.413496 11.092315
-7.9776859 8.9030313 12.785659
-4.997438 7.7497406 9.072855
-7.4713149 8.4014826 10.525376
-7.4106231 8.4988775 10.590493
-7.7856951 8.8136854 11.337344
-7.3263545 8.2520781 9.1496181
-6.1472144 8.5794954 10.288078
-4.5020924 8.0103283 8.6140146
-1.2218965 8.4806042 10.064918
-7.3090076 8.4064054 8.3329687
-3.0283637 8.5639877 9.5442162
-5.0825992 8.8132696 9.5955353
-3.0571096 8.598546 9.3710022
-2.6345055 8.9546404 9.5966215
-3.9735396 9.0105314 9.2979746
-2.3913872 8.5313578 8.5737686
-1.7086332 9.7916098 10.533365
-7.9974513 10.538321 9.2928848
-6.5363431 8.8475637 7.0876145
-7.7318769 10.197304 8.8112936
-6.5460029 8.8421688 6.9528971
-1.7406573 11.319331 11.709844
-8.0466909 11.425345 9.5814581
-8.2584896 11.969905 9.4424219
-7.6969352 4.8509588 12.398985
-5.4887128 5.4613752 9.2564049
-7.7792411 5.0830979 11.094741
-7.2249064 5.5021682 10.467183
-7.8977923 5.585371 12.688176
-7.4588752 5.7733622 10.518518
-7.2900672 5.8517251 10.258529
-6.1252527 6.0875926 10.563812
-7.1830258 6.2885523 10.203135
-7.0483184 6.4302349 9.813777
-7.8177075 6.4813652 11.29032
-7.4482293 6.5938792 11.468961
-7.7758927 6.6145039 11.204515
-7.6331511 6.9083877 11.411267
-7.2559533 6.7940612 9.2261181
-7.0679598 6.9389224 10.701631
-7.2124777 7.041214 9.4553862
-7.24617 7.0605073 8.7603388
-7.4714522 7.9644175 9.767746
-7.4531136 7.9057994 8.6888523
-7.3383536 7.942224 8.7042055
-7.5556607 8.0572071 8.8541536
-7.132206 7.9134235 8.1023455
-7.0358753 8.5772409 8.6375093
-7.0293045 9.1114712 8.9698172
-2.5613902 9.4375057 9.9925909
-2.3386705 9.5113487 9.6519318
-6.6971426 9.0309467 7.0146031
-8.4270458 13.26023 11.471581
-7.656311 11.436816 8.2443514
-2.3536096 11.437408 9.0966444
-6.4468551 5.1963177 11.550627
-7.2033882 5.2427907 10.649626
-7.5242286 5.5214882 10.426607
-7.0362997 5.6838861 10.648977
-7.2740631 5.8831162 10.924957
-7.5685925 5.9531803 10.087198
-6.9701462 6.0189476 9.7018299
-7.4366698 6.028686 10.038311
-7.7840643 6.2023306 10.054471
-7.5809622 6.2659411 9.914566
-7.5327621 6.3118114 9.8415918
-7.4551454 6.3282728 9.8395214
-7.4972353 6.3575382 9.597784
-7.3073187 6.8313565 9.646349
-7.35495 7.5968719 10.204617
-8.0941257 7.9384131 11.834954
-8.1655226 8.0033789 12.066184
-5.630475 7.5981932 9.4295759
-7.2545433 7.6369538 8.7847929
-7.385736 8.4036026 11.569272
-7.4369416 7.7856503 8.8059015
-7.9394965 8.477602 11.251184
-7.8302975 8.3905478 10.710668
-7.7304649 8.6163063 10.877294
-3.5429099 8.8562155 10.109829
-3.6123912 8.9786081 10.000947
-3.0585957 8.5689707 9.0639811
-3.1926615 8.718503 9.0961771
-3.187371 8.8406754 9.2951841
-2.782254 9.2654667 9.7563171
-6.4464035 8.3780785 7.1149645
-2.7322516 9.1578531 9.4851103
-2.7997909 9.1343431 9.3330088
-7.8548722 10.281933 9.3895578
-6.4100375 8.7599897 7.1618562
-3.2941918 12.25515 10.080836
-2.6338568 12.750778 10.554645
-7.7748427 5.0033159 11.530194
-4.279839 5.9936047 6.8910127
-4.2309842 6.0158377 6.8052115
-7.6930733 5.2044144 11.458104
-7.3573551 5.7791443 10.300663
-7.6392841 5.8034558 9.8871365
-7.3496046 5.8688674 10.07629
-6.1595993 6.0357242 10.562676
-8.0324249 5.9926105 13.095061
-6.7988329 6.1189146 8.6460857
-7.5531659 6.3131371 12.49681
-7.3722196 6.5720549 9.5432472
-7.0838146 6.6112528 8.6843281
-7.3466225 6.755774 9.1091375
-7.3367686 6.7544446 9.1550884
-7.4587107 6.990386 10.737227
-7.5443058 7.1420188 11.748895
-6.7870793 7.5313973 12.033573
-7.3990216 7.2227221 9.5183468
-7.0606551 7.60429 12.108278
-7.2599239 7.1540513 8.9170761
-7.2858057 7.2176528 9.155385
-8.1412029 8.0028954 12.62512
-8.0781384 8.127223 11.804412
-7.136445 7.6122169 8.453021
-8.1765604 8.9502611 12.33149
-4.7928634 7.9295478 8.8745937
-7.0498767 8.0496988 8.5837107
-7.194284 8.2144384 8.9401588
-6.8239732 7.9573469 7.7721152
-4.9563346 8.1724529 8.7760372
-2.5228059 8.297905 9.3044624
-4.7939587 8.3858967 8.8516502
-3.3631063 8.6556692 9.4273968
-7.5837026 8.7693062 8.4385529
-2.5662937 8.7914658 9.4502726
-3.1302643 9.0390882 9.7527218
-2.1428266 8.9617062 9.8043461
-2.303272 8.6945038 9.153079
-1.7957071 9.2634878 10.272619
-2.4450631 9.3887939 9.7049999
-3.2605367 9.7815905 9.913866
-7.0826874 9.4302387 8.1640348
-6.6372585 8.6445742 6.7909355
-8.5675755 11.914538 9.5785398
-2.6343663 11.80424 10.860841
-2.9197361 11.862735 9.9945736
-2.6917012 12.868979 10.395858
-3.9412932 6.1098766 6.0061765
-4.0820756 6.0386147 6.4588594
-7.5086212 5.0903726 11.225971
-4.1201215 6.0522919 6.6973982
-3.9340837 6.1540833 6.0315132
-7.4960265 5.3276739 12.203062
-7.5552554 5.565351 10.267673
-7.3667111 5.5429583 11.629975
-7.2002773 5.859385 9.3978596
-7.3564916 5.8574448 9.8743906
-7.2215762 5.9005508 9.7919474
-7.0344114 5.9983649 9.3582373
-6.6863484 6.2175169 9.0344639
-7.3350377 6.1583476 10.419324
-5.8235974 6.2784643 9.8010483
-7.0469022 6.2431374 9.2022476
-7.8107753 6.4208808 9.1952925
-6.892909 6.4808249 9.5442667
-7.2209086 6.4589667 8.5591583
-7.4675879 6.5183024 9.5046787
-7.9596591 6.5877957 11.087312
-5.2734675 6.6533437 8.878684
-8.0174007 6.8470125 11.771134
-7.5077391 6.8242764 11.47265
-7.4261484 6.8399982 11.609509
-5.0138044 6.8109379 8.6750698
-7.8344116 7.0181079 10.253892
-5.5486555 7.1357794 9.3599911
-7.785778 7.5178919 11.995742
-1.992524 7.3250518 10.32278
-1.9115027 7.3558378 10.556302
-6.512578 7.4524384 11.014232
-7.4792948 7.5219374 10.921903
-5.5648465 7.406405 9.2253742
-7.4523592 8.1708889 8.6639013
-7.5820174 8.2474442 8.8340321
-7.5150781 8.2318306 8.7216749
-5.7127342 8.6235905 10.122001
-7.432272 8.5379791 8.9319983
-5.26369 8.6344213 9.3428974
-7.1145329 8.3235455 8.0763206
-3.2943397 8.5253782 9.1169453
-9.6693573 9.043148 8.8293629
-2.1442752 8.973917 10.151075
-2.3498785 8.7946692 9.368351
-4.4766912 9.4498339 9.9991426
-2.585429 9.3720236 9.5749063
-5.6837683 8.1439905 6.4821334
-7.3311315 9.8546581 8.9726734
-3.709075 10.109615 10.279527
-2.113399 12.222243 12.672463
-7.6795959 10.351899 8.4699783
-6.7309995 9.2001247 7.0469999
-6.7822766 9.4512873 7.3570123
-6.8942142 9.6025286 7.3622789
-7.5189438 10.363541 8.1847916
-2.7891915 13.007132 12.167589
-8.1868334 11.478066 8.2758274
-2.2916489 13.539608 11.211263
-2.0087004 13.310428 10.929991
-7.4992738 5.8760195 10.017323
-5.1071844 6.6312218 8.6286917
-7.3794184 6.8050385 10.034875
-5.8755732 6.8292437 9.8918104
-4.8933716 6.7819123 8.3237524
-5.2288728 6.8324227 8.8227177
-5.127974 7.8545475 9.4031219
-7.0469031 7.7948442 8.0381842
-3.1082597 8.2991781 9.2243776
-2.2982008 8.9406147 10.103099
-2.2757485 8.7222385 9.4757223
-4.1743326 9.2653799 9.9344501
-2.6124749 8.558156 8.8633575
-2.1764562 8.9369183 9.7461195
-2.5892332 8.6976776 8.8753471
-4.7019596 10.028514 10.838366
-2.6145563 8.9598045 9.2126846
-2.5157282 9.0491581 9.4064322
-2.6308367 10.510335 11.126242
-6.6647773 9.0172234 7.011941
-1.7949588 12.773389 13.119385
-7.2847004 10.654553 7.9308119
-7.3039002 4.4082952 13.211638
-4.2545114 5.9282198 6.9087019
-4.2144055 6.0151372 6.874413
-4.0644436 6.0422692 6.8367047
-4.2215819 6.0305204 6.8514996
-4.2073712 6.0345206 6.9248166
-4.1207714 6.0849237 6.9324532
-7.0807986 5.5112638 9.1840858
-7.7992229 5.2899971 10.668274
-7.7347941 5.5395412 10.321966
-6.1719198 5.7084928 10.829049
-7.3155227 5.8977046 9.2671614
-7.2160683 5.922719 10.12992
-7.4115562 6.0128131 9.2609253
-7.3046966 6.1179667 9.1999235
-7.2646413 6.0912752 10.0304
-3.3014896 6.53371 7.6319036
-7.8007579 6.4513683 11.359396
-7.4360166 6.6407785 10.244158
-7.2436528 6.6145043 8.9352131
-7.4196696 6.7542577 11.185859
-7.4968948 6.7286625 10.104595
-7.5753822 6.7882981 9.6587114
-7.5752492 6.8437152 9.7479172
-7.6814451 6.955615 10.899099
-8.39781 7.2067981 13.619378
-7.5595989 7.14393 10.885862
-7.2410588 7.0495477 9.3265371
-7.3170896 7.1551914 9.5110292
-7.6063538 7.6372347 12.793564
-7.4396091 7.4364543 10.646214
-7.3669667 7.2179332 8.5445156
-8.373456 8.1298685 13.000287
-7.2523198 7.3406067 8.3932238
-7.4226952 7.4849124 9.0042477
-7.6250696 8.1381187 12.200029
-7.5216446 7.4727507 8.6444473
-7.5702453 7.9697065 10.874102
-7.5598187 7.6121249 9.1411381
-8.1640749 8.2199354 11.757259
-7.5261183 7.6416216 9.0888987
-7.2376056 7.6276331 8.5041189
-7.3106451 7.745204 8.5164404
-7.2372713 7.742003 8.4747448
-7.6321039 8.704855 11.860061
-7.5198059 8.563859 8.8360558
-2.7700257 8.2884617 8.9307919
-7.5506215 8.7471399 8.9833775
-2.2511806 8.3003302 8.9048204
-5.4136596 9.0369892 9.9721746
-2.7855995 8.5591383 9.1885366
-7.4193077 8.7007809 8.4210167
-7.5982623 8.8627186 8.4087763
-7.4287825 8.7993355 8.2945604
-7.5284252 8.7784967 8.1848488
-7.5851436 9.3015299 9.1651402
-7.3526707 8.7978163 8.1686707
-7.4155002 8.6859655 7.8397665
-7.3775344 8.7862377 8.0646219
-7.1680512 8.7283335 7.9330139
-7.4858718 9.0749702 8.4332647
-7.5551033 9.1055546 8.2458353
-7.4612074 8.9888706 7.7970819
-7.3654103 8.8841343 7.3024178
-7.3137646 8.9843731 7.4675326
-7.2563205 8.8701506 7.2474132
-2.2763891 11.017516 11.274572
-6.3371129 8.8984175 6.8528423
-2.357461 11.697574 11.812628
-9.3001833 15.276402 14.800787
-9.2126312 15.226987 14.63105
-1.5498238 11.973627 12.222817
-7.065423 9.7543945 7.5495777
-1.8037611 11.957536 11.528116
-2.8606286 12.369077 11.518209
-1.6314811 11.945643 11.234311
-1.2275932 12.366558 11.684446
-9.8604841 18.184595 15.768812
-8.3326817 12.749377 9.9378033
-1.973964 11.980314 10.715858
-8.4573135 13.49504 10.305008
-2.3410411 14.166037 11.406279
-8.065918 3.956197 15.304765
-4.4623623 5.8534613 7.8739705
-4.3782821 5.9535093 7.4908252
-7.3032193 5.2610331 10.490253
-7.666532 5.0930071 12.233014
-7.6771946 5.3925509 10.722306
-8.1140995 5.2091842 13.3461
-7.4579268 5.6562719 10.969237
-4.4065428 6.2146215 7.4195919
-7.9826002 5.8155942 10.250338
-7.5171666 5.9840155 10.900699
-7.4453239 6.0961232 10.776844
-7.7206564 6.0663562 12.215747
-7.7216649 6.1636467 10.013371
-7.4822507 6.1411233 11.697398
-7.6070108 6.3036118 9.7665653
-7.4213514 6.3107471 9.9314489
-7.6864786 6.4856796 10.613721
-7.152813 6.61168 8.5735283
-7.4570131 6.7468009 9.8647852
-7.5055442 6.9203606 10.204453
-7.4360547 6.9416871 9.6658249
-7.0460892 6.9437771 9.2212315
-7.5688643 7.0245037 10.197493
-7.6599135 7.192543 11.859607
-7.506711 7.2698112 12.066274
-7.2911592 6.9619298 8.8111982
-7.9659309 7.478025 12.667822
-7.9102101 7.6194916 12.504798
-7.450757 7.4671559 10.981841
-7.1613193 7.1761589 8.5642042
-8.1410236 7.8948803 12.747275
-7.8623662 7.8740811 11.920666
-7.8058062 7.9356689 12.019325
-7.0754442 7.329896 8.561223
-7.3576417 7.4099445 8.7061539
-7.504406 7.4956288 8.8464355
-6.5357261 7.9252853 10.915953
-7.4934292 7.6013637 8.8083677
-7.1939611 8.2944088 12.143391
-7.3839078 7.7284327 8.6432638
-7.7526445 8.6604481 11.980329
-7.6363697 8.7116003 11.189061
-5.9750719 7.4211974 6.7277722
-7.3390064 8.1899891 8.7484274
-7.5876865 9.3988285 12.318089
-7.2784042 8.4397287 9.2188129
-8.8021765 10.677584 15.545639
-5.9963136 7.4965177 6.6601877
-6.0963926 8.0909443 6.6733351
-7.6482978 9.4476824 8.7317715
-2.2406073 10.384039 10.947007
-7.5652165 12.549833 12.892686
-6.5737324 8.6593714 6.8986011
-7.9967232 10.292488 8.6058273
-0.40445894 13.437204 14.699674
-6.6637831 9.3332014 7.3138671
-2.586309 11.874558 11.888186
-2.2357812 12.449972 12.784021
-7.4787612 10.282025 8.3154821
-1.1442511 13.193845 13.398811
-0.94353241 12.762303 12.851726
-7.2469077 10.181454 7.8048015
-2.8276231 12.67947 12.029462
-8.3904791 11.980023 9.0694208
-8.0331583 11.26614 8.314332
-9.1958275 12.587809 9.3772888
-7.8345056 11.808174 8.8913631
-1.8984884 12.177316 10.840272
-3.4297624 13.586352 10.514522
-7.3833203 5.244926 11.253414
-7.079495 5.2732596 11.760284
-6.9960594 5.4082136 11.766799
-7.5084281 5.9512372 9.7674961
-7.8557601 5.9189358 11.668507
-7.1263723 6.1210489 9.6003523
-7.9355569 6.0444698 11.494982
-7.1338315 6.2093019 10.002572
-6.5144038 6.2208147 10.986709
-7.5261025 6.3646665 10.875883
-7.4481196 6.3719072 10.990048
-7.138732 6.5096779 9.3586712
-7.6268024 6.5111475 10.484564
-7.1241732 6.598464 9.3077517
-7.5619268 6.7605901 11.944331
-7.6614976 6.7334929 10.83966
-7.432415 6.7654285 11.462577
-7.6271124 7.086966 10.704993
-7.7237315 7.4086909 12.556029
-7.8923936 7.7653589 11.904583
-8.3252935 8.1557512 13.896501
-7.6252146 7.6319981 10.043756
-7.3848777 8.0958223 11.068594
-5.9941559 7.2203813 6.68398
-7.440558 9.0273247 12.214501
-7.7527728 8.3865328 9.8789845
-5.5819516 8.2917299 9.7804785
-7.4519963 9.4080591 11.815295
-4.9109621 9.1238165 9.7070484
-3.0411026 9.2854948 9.8739891
-3.0191231 9.4106474 10.061667
-2.7150965 9.1297064 9.5888691
-2.5665243 9.2837124 9.7809734
-2.645525 9.4892464 9.9847822
-6.2621503 8.407093 6.8149743
-7.23806 10.21238 9.393219
-7.7035446 9.6528482 7.9817228
-7.4654951 10.614617 9.1189966
-7.469398 10.315575 8.5509548
-2.0509422 11.971107 12.320715
-2.1820099 11.74047 11.806587
-1.3924851 12.297822 12.620706
-1.4052472 10.852145 10.363197
-1.8039211 12.774149 12.669086
-1.0111194 12.890928 13.066595
-1.2652719 11.025806 10.443302
-8.4016228 11.349673 8.4950733
-2.4982321 13.754703 11.16691
-2.8052304 14.372106 11.178646
-7.9275689 4.9647551 12.552566
-4.7291884 6.4868026 7.781271
-7.4196463 6.4095635 10.342448
-7.618381 6.5506821 11.403174
-7.4302936 6.731565 11.281688
-7.6452217 7.0630374 11.210835
-5.2058182 6.9520068 8.7964315
-7.6879516 7.2777977 10.671716
-6.7572613 7.3811703 11.017314
-7.7045326 7.7652559 12.105447
-7.8971052 7.8359098 12.54285
-7.0381799 7.2974768 8.5226851
-7.2840371 7.6246767 10.223246
-7.3407454 8.0375462 9.9734564
-7.4951158 8.5621777 11.958063
-7.5676551 8.5368967 11.395844
-7.2561283 8.5605574 11.504853
-7.6833234 8.5093222 10.935091
-7.2123408 7.9538832 8.6013098
-6.0862226 7.3777266 6.7243118
-6.0624452 7.4461584 6.8509097
-6.2016397 7.4677806 6.7324119
-7.8655691 9.4684038 11.897116
-6.1824775 7.6381874 6.9170761
-7.4380679 8.9750271 9.5177784
-7.7184448 9.9221668 11.824605
-7.5958447 9.1143456 9.4962912
-7.7549133 10.065647 11.043712
-0.86705452 10.779512 12.07144
-5.5684414 11.445596 10.980765
-1.8398776 11.325222 11.638466
-9.038538 14.761068 14.570928
-2.0180368 11.774552 11.649505
-8.0044003 11.64467 9.3033628
-8.0196075 11.81971 9.5038404
-8.2272148 11.768465 8.9445648
-2.6329601 13.154737 10.9352
-2.4277532 13.691739 11.040174
-7.4457197 5.1173325 10.757311
-4.9789019 6.1338 8.1299124
-7.601635 6.0923743 9.8102522
-4.7024264 6.3703151 7.8497047
-5.2044683 6.2844572 9.1395731
-7.5306597 6.1730037 9.9764805
-7.5378146 6.5321598 9.6078329
-7.332552 6.705719 9.574892
-7.3418036 6.8086724 11.226766
-7.3840127 6.9491663 10.268737
-7.8451238 7.2158895 12.619459
-7.430861 7.0771489 10.025455
-6.9714322 7.0019598 8.6488934
-6.3630886 7.3691225 10.860215
-5.2948804 7.1728425 9.0247231
-7.6968608 7.2384667 9.1812763
-7.8564911 7.8062148 12.284342
-7.8195767 7.6818643 9.942318
-7.569427 7.6466503 9.5794621
-7.6825204 7.948226 11.079791
-5.6771097 7.0403008 6.5032802
-5.5732245 7.0226641 6.4338245
-7.9251351 8.9852562 12.568005
-6.0569744 7.3780818 6.6598387
-5.9468379 7.4295464 6.6597514
-5.4029355 9.7215652 10.575801
-3.2707477 9.2983265 9.3905201
-7.050868 9.1912498 7.9323988
-2.3122621 12.446297 12.502308
-2.2015626 12.446891 12.235231
-7.1926322 9.9355421 7.6309433
-7.8614655 10.779791 8.3898106
-1.9141685 12.588316 11.855211
-2.6359417 13.652087 12.464025
-1.7042594 13.027824 12.068533
-2.7546861 12.960646 11.600795
-2.150058 12.495499 11.206292
-2.4434891 13.304318 10.972314
-2.0602269 13.741899 11.512314
-3.6453619 14.12524 11.318425
-3.1503305 13.776997 11.020432
-6.3740659 4.717351 12.288867
-5.7492576 5.0760798 10.980211
